# .PCD v0.7 - Point Cloud Data file format
VERSION 0.7
FIELDS x y z intensity
SIZE 4 4 4 4
TYPE F F F F
COUNT 1 1 1 1
WIDTH 1413
HEIGHT 1
VIEWPOINT 0 0 0 1 0 0 0
POINTS 1413
DATA ascii
122.50546 -4.8574057 -97.829102 5
122.98439 -4.8866711 -97.932487 5
128.49884 -4.877718 -97.914375 6
121.77536 -4.6568036 -97.904579 6
122.94248 -4.6239338 -97.984856 6
123.49248 -4.6375155 -97.896065 6
120.84009 -4.5352225 -97.876076 6
121.82072 -4.5467138 -97.969017 6
123.06525 -4.5704093 -97.90831 6
123.37455 -4.5880957 -97.987701 6
123.64027 -4.5879459 -97.932602 6
120.34326 -4.2368436 -97.805138 7
120.82772 -4.2315879 -97.814621 7
122.05567 -4.2199311 -97.827026 7
122.32198 -4.2291765 -97.962502 7
123.03002 -4.2074957 -97.888817 7
127.66383 -4.2803669 -97.944435 7
117.92316 -4.146852 -97.968338 7
120.88153 -4.1188221 -97.878387 7
121.97869 -4.177494 -97.822693 7
122.26953 -4.1928854 -97.993881 7
122.94624 -4.1666474 -97.992165 7
123.20566 -4.1669703 -97.931198 7
127.53374 -4.1476316 -97.905014 8
120.94798 -3.8143258 -97.861755 8
121.10609 -3.8704195 -97.900978 8
121.90541 -3.8450584 -97.900696 8
122.21097 -3.8146975 -97.878571 8
127.67174 -3.9258697 -97.945374 8
129.71675 -3.8195977 -97.988007 9
120.27021 -3.7978897 -97.817947 8
120.88565 -3.7780852 -97.946693 8
122.22295 -3.7193263 -97.816391 8
122.92195 -3.7275701 -97.949821 8
123.12331 -3.7201393 -97.805855 8
127.57117 -3.7828095 -97.905991 9
128.77652 -3.712136 -97.987999 9
130.42354 -3.7372291 -97.948013 9
118.39691 -3.4321134 -97.949745 9
120.35403 -3.4213805 -97.820023 9
120.95554 -3.46404 -97.86557 9
121.92802 -3.4650621 -97.872345 9
122.2562 -3.4730422 -97.91774 9
123.03594 -3.472482 -97.890694 9
123.31647 -3.4725835 -97.927933 9
127.68114 -3.5884812 -97.930344 9
117.44373 -3.3638654 -97.98275 9
118.2363 -3.3842123 -97.933456 9
120.87155 -3.3761961 -97.924309 9
122.96832 -3.3478181 -97.962601 9
120.27309 -4.8643517 -97.741074 5
121.30108 -4.8172283 -97.713959 5
122.23153 -4.6304631 -97.797806 6
117.47502 -4.479538 -97.608345 6
118.209 -4.4962678 -97.658752 6
118.88132 -4.4633393 -97.701569 6
119.82809 -4.5012503 -97.736771 6
120.16479 -4.4843225 -97.654327 6
120.25729 -4.453773 -97.690506 6
120.43791 -4.4900742 -97.741776 6
121.07205 -4.52139 -97.772911 6
121.32929 -4.5248299 -97.783249 6
88.080017 -4.2459478 -97.705276 6
120.02585 -4.229198 -97.67041 7
117.24442 -4.1219277 -97.618141 7
119.93668 -4.1736097 -97.662788 7
120.2623 -4.1823239 -97.797989 7
121.06196 -4.1694527 -97.731445 7
121.28774 -4.1726012 -97.740654 7
120.92644 -3.8036592 -97.745621 8
121.30896 -3.8122702 -97.778076 8
86.783768 -3.7305799 -97.6437 7
88.085991 -3.7438054 -97.716614 7
119.94128 -3.7884648 -97.688622 8
120.44232 -3.7965906 -97.713814 8
119.97513 -3.4181561 -97.651047 9
120.03674 -3.4066892 -97.6847 9
120.25204 -3.4268813 -97.774628 9
121.31454 -3.464282 -97.751518 9
87.324425 -2.897656 -97.609428 9
118.89258 -4.8507738 -97.55014 5
116.92749 -4.752759 -97.413376 5
117.34769 -4.7716637 -97.499878 5
117.17409 -4.4671144 -97.542839 6
118.96746 -4.4965391 -97.508766 6
116.04913 -4.2918267 -97.559959 6
117.70621 -4.2759147 -97.478043 6
84.165314 -4.1758614 -97.404938 6
84.250305 -4.1466427 -97.416206 6
115.44505 -4.1317496 -97.400024 7
115.75683 -4.1330161 -97.454933 7
116.14931 -4.1359453 -97.511398 7
116.53304 -4.1121931 -97.450623 7
116.93401 -4.1178617 -97.595596 7
117.12155 -4.1135769 -97.443367 7
117.61207 -4.120152 -97.568558 7
118.15276 -4.1200943 -97.523788 7
118.21177 -4.1484103 -97.548096 6
117.74636 -3.9827178 -97.501167 7
118.13882 -3.9910641 -97.525726 7
84.153152 -3.7574666 -97.404968 7
84.221878 -3.6860616 -97.433052 7
115.84059 -3.7496185 -97.501953 8
116.27943 -3.7416456 -97.542717 8
116.93605 -3.7448874 -97.57003 8
117.07132 -3.7553718 -97.43779 8
117.473 -3.7455792 -97.55703 8
118.15775 -3.7467484 -97.545731 8
120.16518 -3.7856989 -97.569008 8
118.04642 -3.5526628 -97.410255 8
86.729103 -3.2608335 -97.488152 8
88.019753 -3.258208 -97.582146 8
94.021675 -3.3548324 -97.596146 8
115.76085 -3.3852999 -97.408043 9
116.18079 -3.3870177 -97.437103 9
116.67453 -3.3904448 -97.431915 9
117.17747 -3.3458607 -97.573578 9
117.61497 -3.3901653 -97.552628 9
118.09039 -3.388072 -97.510368 9
117.67899 -3.189364 -97.534325 9
118.17606 -3.1813896 -97.552414 9
94.000618 -2.929415 -97.553322 9
114.3967 -4.853899 -97.264816 5
114.89119 -4.8777189 -97.259514 5
115.9883 -4.8051243 -97.371971 5
116.53622 -4.7834115 -97.343315 5
114.85404 -4.4454379 -97.226944 6
115.52686 -4.5180931 -97.329811 6
115.92382 -4.5841293 -97.366867 6
116.25547 -4.4311213 -97.366081 6
116.60289 -4.5547762 -97.340195 6
116.87562 -4.5502825 -97.385948 6
117.26352 -4.5339088 -97.362251 6
115.61739 -4.2723494 -97.334373 7
115.956 -4.365088 -97.369804 6
116.71407 -4.2754588 -97.395058 6
114.35792 -4.0652523 -97.334564 7
114.91238 -4.0644231 -97.374443 7
115.40444 -4.1328726 -97.391602 7
115.67516 -4.0944829 -97.377739 7
115.84464 -4.1493826 -97.348114 6
116.06126 -4.1229095 -97.374725 7
116.61475 -4.1169872 -97.344292 7
114.46923 -3.7307541 -97.338661 8
115.56925 -3.6755333 -97.244301 8
115.79068 -3.7220452 -97.302811 8
115.83016 -3.676893 -97.226089 8
116.22244 -3.6864271 -97.257065 8
116.558 -3.6899009 -97.266235 8
116.68663 -3.6829388 -97.294586 8
117.6248 -3.551316 -97.365807 8
84.248039 -3.2603459 -97.307007 8
85.067917 -3.2623429 -97.370888 8
85.486961 -3.2361927 -97.369308 8
85.731781 -3.2356982 -97.385033 8
114.19792 -3.3345175 -97.236046 9
116.24876 -3.3138349 -97.387779 9
116.62997 -3.3241096 -97.37632 9
84.116074 -2.859894 -97.395454 9
110.67181 -4.4502821 -97.022827 6
114.30324 -4.452354 -97.151855 6
84.082077 -4.1070819 -97.047577 6
114.21645 -4.1820278 -97.112358 7
110.57935 -3.9464214 -97.087708 7
84.051346 -3.6938794 -97.030533 7
88.133469 -3.6953683 -97.194702 7
109.88041 -3.6475956 -97.040123 8
114.3763 -3.6903071 -97.039703 8
114.99084 -3.673593 -97.143433 8
84.088638 -3.2390971 -97.061356 8
109.86674 -3.2669227 -97.005249 9
2.8789237 -1.6826568 -97.189499 8
109.41095 -4.5855579 -96.956924 5
84.013428 -4.2364726 -96.986656 6
109.26643 -4.2791996 -96.955635 6
109.50921 -4.2815971 -96.98661 6
109.53107 -3.9270287 -96.963585 7
110.69122 -3.6367292 -96.900368 8
109.54346 -3.2066243 -96.952782 9
110.66736 -3.2529404 -96.897026 9
113.97417 -4.7919478 -96.689545 5
114.26417 -4.7819948 -96.725449 5
109.63553 -4.5377393 -96.658531 5
110.96352 -4.4223018 -96.643913 6
112.99297 -4.4365873 -96.621353 6
113.39271 -4.4267936 -96.66391 6
113.67313 -4.4321885 -96.703781 6
114.27586 -4.4059043 -96.732887 6
108.31824 -4.2545137 -96.647339 6
110.96082 -4.2560258 -96.677597 6
111.3123 -4.2051816 -96.658073 6
114.13416 -4.0086913 -96.740196 7
114.27264 -4.0209398 -96.78093 7
114.20733 -3.9985242 -96.719101 7
114.10789 -3.6660271 -96.775276 8
114.22514 -3.6986721 -96.791306 8
108.29668 -3.541707 -96.607407 8
109.60203 -3.5473385 -96.755829 8
110.63461 -3.4443271 -96.758965 8
113.98517 -3.5730748 -96.761368 8
113.94453 -3.2236519 -96.722229 9
114.13271 -3.3359187 -96.743843 9
114.24884 -3.3234355 -96.758377 9
113.9485 -3.1806393 -96.680649 9
153.83228 -4.8429708 -96.514175 6
111.11053 -4.5083494 -96.418381 5
113.61459 -4.5982075 -96.501343 6
153.5663 -4.4035134 -96.55735 7
153.62206 -4.406642 -96.492439 7
111.16154 -4.231256 -96.482887 6
111.22825 -4.3610034 -96.50737 6
112.37885 -4.2917476 -96.554527 6
110.56543 -4.0157356 -96.425056 7
111.12417 -4.1206164 -96.475922 6
111.3262 -4.0348687 -96.456619 7
112.88844 -4.1139269 -96.595917 6.5
113.64069 -4.0081553 -96.541656 7
108.29412 -3.9020653 -96.585457 7
111.05668 -3.9147251 -96.486542 7
113.55343 -3.9980502 -96.599831 7
110.37588 -3.6401207 -96.412338 8
111.02853 -3.6124959 -96.508278 8
111.77119 -3.6053195 -96.40094 8
113.47911 -3.6542695 -96.578445 8
113.69067 -3.6502194 -96.530609 8
110.97587 -3.4278462 -96.482674 8
111.08482 -3.5575981 -96.487144 8
113.38465 -3.5533009 -96.549072 8
110.41135 -3.2815847 -96.410538 9
110.9217 -3.2160528 -96.445259 9
111.04572 -3.231528 -96.469528 9
113.54988 -3.3274646 -96.550911 9
113.6593 -3.3015213 -96.547684 9
-11.667761 -0.86195123 -96.456055 8
153.59708 -5.2402077 -96.386963 6
153.63254 -5.3331671 -96.265671 5
134.93919 -5.0009356 -96.21315 5
153.87367 -5.1060872 -96.343994 6
134.92596 -4.9357057 -96.237389 5
153.93303 -4.939784 -96.306854 6
134.93555 -4.6528072 -96.25592 6
135.7785 -4.657516 -96.25769 6
153.84631 -4.6847949 -96.339584 6.5
134.9241 -4.5327735 -96.288193 6
153.71472 -4.4370079 -96.312035 7
153.87964 -4.4772563 -96.303123 7
105.95529 -4.2130523 -96.210716 6
108.05616 -4.2091241 -96.230255 6
108.28139 -4.3011241 -96.262352 6
109.16114 -4.3156276 -96.309341 6
134.90053 -4.2836418 -96.245544 7
135.02463 -4.3046293 -96.293404 7
135.79817 -4.3621731 -96.249878 7
153.82965 -4.3178368 -96.286469 7
134.95886 -4.0901003 -96.259895 7.4000001
135.06287 -4.0809455 -96.260773 7
107.51209 -3.8340132 -96.265541 7
109.1314 -3.914268 -96.295197 7
134.93178 -3.9326708 -96.290329 8
153.52002 -3.8899174 -96.353043 8
153.73802 -3.9188447 -96.260048 8
109.1582 -3.6069703 -96.328812 8
134.95584 -3.770555 -96.213562 9
135.05334 -3.6250734 -96.216293 8
108.03011 -3.521848 -96.220848 8
110.7916 -3.5921662 -96.327156 8
134.98581 -3.5663755 -96.35778 9
135.10921 -3.4268248 -96.276894 8
109.15211 -3.258378 -96.311737 9
134.97629 -3.3289044 -96.287277 8.5
135.04857 -3.3736672 -96.223862 8
108.90847 -3.0573134 -96.257919 9
153.56308 -5.3734727 -96.160637 5
153.69861 -5.3121729 -96.106194 5
106.59254 -4.5503917 -96.013031 5
108.07963 -4.4883685 -96.147057 5
108.44973 -4.5295763 -96.187683 5
134.89253 -4.5929565 -96.190804 6
103.38629 -4.3088589 -96.007668 5
105.48917 -4.2208691 -96.142242 6
106.81509 -4.2754793 -96.102943 6
107.75296 -4.2336183 -96.124504 6
107.84397 -4.2356839 -96.03479 6
107.02942 -4.1583819 -96.00312 6
135.75708 -4.100841 -96.191666 8
105.33383 -3.8579876 -96.009483 7
105.61488 -3.8923237 -96.017738 7
105.88912 -3.9006362 -96.168633 7
106.38005 -3.8842211 -96.082779 7
106.66689 -3.8089328 -96.081444 7
108.0331 -3.870254 -96.179832 7
135.75417 -3.8096161 -96.186661 9
153.58693 -3.9986322 -96.194267 8
153.76608 -3.8877523 -96.145142 8
153.80008 -3.8855016 -96.106476 8
153.79883 -3.7384002 -96.145157 8
105.57751 -3.5152397 -96.045403 8
105.81456 -3.4808099 -96.049164 8
106.39035 -3.4840462 -96.128372 8
106.952 -3.4830229 -96.147453 8
107.26798 -3.483865 -96.165649 8
108.76108 -3.4232337 -96.164124 8
109.06991 -3.4220917 -96.181877 8
105.80658 -3.1147547 -96.039627 9
106.36508 -3.1060607 -96.083008 9
106.7183 -3.0997617 -96.10144 9
107.29546 -3.0897048 -96.157372 9
108.05383 -3.1866395 -96.163895 9
102.25462 -4.5905919 -95.926842 5
104.72649 -4.576292 -95.895493 5
104.89679 -4.509778 -95.881561 6
107.55378 -4.5418339 -95.955063 5
102.29243 -4.2873449 -95.951279 6
102.51565 -4.2761154 -95.909576 6
105.33503 -4.2480717 -95.879585 6
106.99539 -4.2402935 -95.838783 6
104.304 -4.160387 -95.861244 6
104.54419 -4.0222602 -95.881676 7
105.46059 -4.0078435 -95.965179 7
103.41985 -3.8507433 -95.810135 7
103.65521 -3.8323188 -95.847755 7
104.87361 -3.8467803 -95.938576 7
106.83469 -3.8651576 -95.942917 7
107.13589 -3.8994088 -95.984116 7
103.42099 -3.507066 -95.82515 8
103.65182 -3.4758675 -95.831039 8
104.5644 -3.4779701 -95.913101 8
105.61463 -3.545018 -95.880943 8
103.43961 -3.1064515 -95.802185 9
103.67928 -3.1377902 -95.822708 9
154.65892 -4.8517928 -95.631119 6
101.15305 -4.4202127 -95.600319 5
102.95037 -4.5323315 -95.723862 5
106.95511 -4.5506573 -95.663551 5
154.57265 -4.4055924 -95.603836 7
100.95557 -4.2927403 -95.62352 6
100.98714 -4.1019926 -95.660164 6
101.89207 -4.0767179 -95.669914 6
106.85464 -4.1863856 -95.797112 6
101.62225 -3.879117 -95.646217 7
102.60081 -3.6966126 -95.747093 7
102.56982 -3.5053792 -95.766418 8
104.69881 -3.5357203 -95.784691 8
93.461311 -3.2619016 -95.645401 8
100.66675 -3.3499942 -95.634949 8
101.58867 -3.0598161 -95.639732 9
102.62491 -3.0873783 -95.736168 9
93.262733 -2.9083464 -95.610619 9
93.462791 -2.9078841 -95.631973 9
102.33632 -2.9652712 -95.716003 9
3.4087644 -1.9246583 -95.668243 7
154.45798 -5.3518438 -95.455177 5
154.62581 -4.4117522 -95.511864 7
92.236984 -4.38025 -95.503189 5
154.72586 -4.3350801 -95.581039 7
92.208458 -4.0089841 -95.506195 6
99.097122 -4.0345392 -95.418152 6
100.10852 -4.0038695 -95.47364 6
100.78973 -4.1035252 -95.438194 6
92.136429 -3.8604255 -95.43013 7
100.17023 -3.945729 -95.547234 7
154.37744 -3.862042 -95.543991 8
154.45981 -3.8843906 -95.484726 8
92.022301 -3.6950312 -95.490639 7
92.285286 -3.69052 -95.485359 7
99.829254 -3.6179013 -95.490211 7
88.264435 -3.5608053 -95.491852 7
94.455795 -3.5619948 -95.42968 7
98.899948 -3.5964456 -95.417412 7
100.00651 -3.5577319 -95.530243 8
101.6694 -3.437367 -95.540154 8
88.288651 -3.2070532 -95.526703 8
91.997704 -3.307795 -95.494728 8
92.269966 -3.3072319 -95.509018 8
99.404442 -3.2449512 -95.502182 8
100.16819 -3.1860399 -95.486176 9
92.051414 -2.9376738 -95.481728 9
92.299896 -2.9417734 -95.509079 9
99.566162 -2.8154032 -95.42244 9
88.271324 -2.7955949 -95.546494 9
94.459877 -2.7677021 -95.443512 9
3.7613816 -1.0322821 -95.525726 8
88.248787 -4.384264 -95.346092 5
92.109283 -4.2332821 -95.302559 6
98.296692 -4.0026855 -95.385223 6
88.253044 -3.9776492 -95.383301 6
96.210052 -3.9784555 -95.239624 6
97.600311 -3.9710202 -95.296562 6
93.199593 -3.610049 -95.370514 7
94.698723 -3.6014762 -95.218216 7
96.391945 -3.6184993 -95.236374 7
96.971939 -3.6307015 -95.289444 7
97.091858 -3.7974138 -95.246857 7
97.499977 -3.6756308 -95.269264 7
92.241806 -3.4055765 -95.34008 8
-1.278897 -3.2091618 -95.375481 6
93.187538 -3.250242 -95.382484 8
94.590233 -3.2461765 -95.364578 8
96.241776 -3.2371242 -95.251457 8
94.347862 -3.1330237 -95.327347 8
94.719238 -3.1818974 -95.215218 8
94.587143 -2.8958669 -95.344612 9
-1.2963893 -1.6360595 -95.397415 8
133.88969 -4.8760691 -95.021759 4
134.20996 -4.8455968 -95.049614 5
133.89615 -4.6803751 -95.033127 5
134.15002 -4.6706123 -95.01339 5
134.73442 -4.7529697 -95.065758 5
133.93166 -4.4408588 -95.017006 6
134.12856 -4.5192375 -95.093109 6
134.72002 -4.4890623 -95.011612 6
133.94824 -4.2210464 -95.017838 7
134.21378 -4.3010092 -95.102524 7
134.96411 -4.2526894 -95.040268 7
94.492371 -4.1737666 -95.022079 6
134.16338 -4.1147938 -95.116447 7
134.21303 -4.0425539 -95.081406 7.5
134.71207 -4.1648436 -95.061264 7
93.485268 -3.9340949 -95.125122 6
97.081276 -3.9389606 -95.143379 6
97.214882 -3.9920793 -95.186234 6
134.10304 -3.9887743 -95.046547 7.5
134.2507 -3.8922203 -95.062164 7.5
95.662498 -3.774224 -95.063385 6
134.11911 -3.737386 -95.056587 9
134.22151 -3.7236683 -95.133652 9
94.743973 -3.5378737 -95.064194 7
94.806747 -3.4386649 -95.101547 8
95.200951 -3.5469835 -95.08963 7
134.32295 -3.5467007 -95.111183 8
91.840576 -3.2886212 -95.118546 8
93.495239 -3.2864308 -95.127457 8
134.07738 -3.2971416 -95.029884 8
94.862701 -3.0562649 -95.052032 9
91.834427 -2.9269865 -95.05249 9
93.518982 -2.9466259 -95.078598 9
94.763634 -2.7514093 -95.034599 9
95.117172 -2.7435141 -95.050407 9
-0.96886325 -2.4159131 -95.141151 7
-0.51024508 -1.6328826 -95.068359 8
134.07831 -4.8674545 -94.970428 4.5
134.77319 -4.9799242 -94.948112 4
133.94159 -4.4763398 -94.978806 6
134.93892 -4.4906502 -94.979271 6
88.28125 -4.319068 -94.898247 5
133.9931 -4.2947969 -94.990669 7
94.171188 -4.1855392 -94.993004 6
133.92497 -4.1783605 -94.951324 7
134.11937 -4.0697131 -94.983032 7
134.73593 -4.0342069 -94.976784 8
91.862961 -3.8221118 -94.821846 7
92.876877 -3.8997078 -94.933418 6
133.94373 -3.9870954 -94.960663 8
134.12141 -3.9384727 -94.983536 7.25
134.21458 -3.9785767 -94.971664 7
134.93799 -3.9953179 -94.993713 8
91.592842 -3.6496811 -94.859512 7
93.67495 -3.705658 -94.967209 7
95.019875 -3.6115775 -94.929779 7
133.88332 -3.7301269 -94.905891 9
134.1147 -3.6679373 -94.920181 8.5
134.64499 -3.7869174 -94.987961 9
134.93275 -3.753262 -94.975975 9
88.305496 -3.517869 -94.974182 7
92.93557 -3.5743575 -94.95787 7
93.71714 -3.4383917 -94.994614 8
134.12885 -3.493248 -94.976425 9
134.24255 -3.5841665 -94.915741 8
91.611671 -3.2740586 -94.815086 8
92.909592 -3.2293963 -94.944061 8
134.13127 -3.3178482 -94.975441 8
93.730629 -3.0349972 -94.980164 9
95.041435 -3.1108363 -94.937767 8
134.06035 -3.1979599 -94.993576 9
92.912102 -2.9000421 -94.901451 9
90.346878 -4.3901043 -94.655045 5
90.041473 -4.1949673 -94.648651 5
88.364815 -3.8598592 -94.654243 6
90.535004 -3.967546 -94.652634 6
91.317429 -3.834913 -94.777618 7
91.888527 -3.9685509 -94.696404 6
163.79655 -3.8508861 -94.741341 8
90.354507 -3.5168035 -94.636238 7
90.654297 -3.5358958 -94.705475 7
90.899323 -3.5272226 -94.669357 7
91.621948 -3.5454626 -94.750488 7
91.504501 -3.3727155 -94.687164 8
91.975769 -3.3758552 -94.762039 8
88.359993 -3.1588812 -94.652176 8
90.215981 -3.1548963 -94.69249 8
90.737694 -3.1744528 -94.7341 8
91.321236 -3.0892475 -94.641075 8
88.382797 -2.8490882 -94.623497 9
90.706093 -2.825789 -94.68457 9
91.634766 -2.9192278 -94.765938 9
88.342369 -2.7732913 -94.631401 9
88.830002 -2.7629342 -94.609085 9
90.476486 -2.7252796 -94.657715 9
88.329208 -4.2651224 -94.512192 5
88.829231 -4.2879481 -94.512115 5
88.421227 -4.1854048 -94.497894 5
88.606033 -4.1881995 -94.512077 5
89.238426 -4.1777444 -94.421646 5
88.327599 -3.8807263 -94.533714 6
88.54068 -3.8320913 -94.429375 6
89.158241 -3.8930197 -94.420334 6
89.210457 -3.8393676 -94.481285 6
87.878319 -3.6291573 -94.458557 7
88.468468 -3.6955342 -94.514496 6
88.892685 -3.6108868 -94.530296 7
88.342201 -3.4847162 -94.564087 7
88.532021 -3.4921894 -94.429771 7
89.162933 -3.4868879 -94.466568 7
89.234787 -3.5190604 -94.520302 7
87.86338 -3.2641397 -94.487419 8
88.835876 -3.2671881 -94.585091 8
84.28347 -3.155612 -94.405273 8
88.081032 -3.1839681 -94.51783 8
88.495056 -3.1607909 -94.486221 8
88.918701 -3.173559 -94.554939 8
89.199478 -3.1469295 -94.479515 8
89.2062 -3.1669543 -94.447495 8
90.408089 -3.0905361 -94.553711 8
88.105125 -2.8449461 -94.481766 9
88.69416 -2.8467052 -94.584808 9
88.897644 -2.8536751 -94.533287 9
89.202843 -2.8402522 -94.420006 9
88.483528 -2.7651763 -94.435562 9
89.150925 -2.751827 -94.446907 9
89.242218 -4.4562449 -94.384262 4
88.485016 -4.2476797 -94.349068 5
89.13475 -4.286037 -94.389458 5
84.317848 -4.1286783 -94.302231 5
80.278168 -3.8114393 -94.383461 6
83.663422 -3.8056068 -94.275406 6
84.278404 -3.8460839 -94.377068 6
84.754082 -3.8334651 -94.230377 6
88.49498 -3.8692908 -94.390198 6
80.392014 -3.4469268 -94.221527 7
84.272568 -3.5199776 -94.313744 7
85.220284 -3.4240432 -94.272118 7
80.498428 -3.3216262 -94.222641 7
81.444771 -3.3360388 -94.266891 7
84.211929 -3.2781227 -94.251884 7
79.025414 -3.1483498 -94.210815 8
80.273865 -3.0929534 -94.354683 8
84.225731 -3.1842887 -94.256172 8
85.301163 -3.1121526 -94.328232 8
80.270126 -2.8855264 -94.252098 8.5
84.24501 -2.8141875 -94.208954 9
85.378288 -2.8137844 -94.299385 9
88.108971 -2.8417974 -94.370934 9
80.224396 -2.7413206 -94.214211 9
80.593994 -2.7390623 -94.260193 9
81.343956 -2.7858326 -94.271576 8
84.163452 -2.6324253 -94.22348 8
84.252716 -2.78056 -94.250381 9
84.989746 -2.663528 -94.282257 9
80.206963 -2.5526912 -94.268082 9
81.387955 -2.5233707 -94.26619 9
81.450066 -4.2099466 -94.079758 5
79.196846 -4.1552052 -94.139671 5
80.028168 -4.1407561 -94.10498 5
80.331505 -4.0814152 -94.151672 5
80.456505 -4.1641474 -94.125092 5
82.578896 -4.1696839 -94.05098 5
83.003151 -4.162076 -94.147285 5
78.172844 -3.8797894 -94.085724 6
81.929176 -3.8901615 -94.041397 6
82.616066 -3.8616011 -94.039238 6
82.89859 -3.8115237 -94.051079 6
83.404678 -3.9797683 -94.09687 6
84.268776 -3.9457936 -94.185608 6
79.25415 -3.7359149 -94.150406 6
81.538696 -3.7876914 -94.040779 6
82.19635 -3.7959256 -94.038734 6
78.16954 -3.5181301 -94.044426 7
79.468628 -3.5461085 -94.08564 6
80.44146 -3.5318482 -94.173782 6
80.608543 -3.5566647 -94.175072 6
81.557945 -3.545469 -94.123322 7
82.558578 -3.5596449 -94.0401 7
82.688812 -3.5124037 -94.051094 7
82.929893 -3.4516385 -94.090103 7
83.01226 -3.5525942 -94.105667 7
83.271332 -3.3521852 -94.126724 7
78.161003 -3.1459236 -94.087646 8
79.641205 -3.0862198 -94.191086 8
83.231331 -3.1832485 -94.161522 8
81.404114 -2.8973305 -94.17598 8
81.620872 -2.8009291 -94.009514 9
83.128693 -2.8517542 -94.068665 8.5
83.299561 -2.8830435 -94.052528 9
78.190865 -2.7873476 -94.050804 9
78.884056 -2.7946386 -94.098946 9
79.612129 -2.7460573 -94.1754 9
82.595512 -2.7419865 -94.067909 9
83.024948 -2.7516291 -94.102837 9
81.549904 -2.5136287 -94.004433 9
81.963181 -2.5031793 -94.046936 9
132.41089 -4.4745073 -93.828461 6
81.929008 -4.2210021 -93.955475 5
80.423653 -4.13307 -93.86805 5
82.014565 -4.1884365 -93.964096 5
82.870956 -4.105547 -93.894753 5
83.223404 -4.1217051 -93.908218 5
83.631042 -4.1375008 -93.900345 5
80.521263 -3.8828394 -93.865669 6
82.920181 -3.8030305 -93.973244 6
79.244926 -3.7421474 -93.852036 6
80.527611 -3.6986535 -93.906662 6.5
81.493149 -3.7638988 -93.97197 6
83.882904 -3.7780824 -93.980225 6
79.23143 -3.410814 -93.815102 7
80.47316 -3.4757166 -93.905128 7
81.037994 -3.4732344 -93.916519 7
81.642502 -3.5799043 -93.979309 7
81.543945 -3.3166671 -93.984612 7
81.6576 -3.3212686 -93.997887 7
79.247429 -3.0688124 -93.825493 8
80.450897 -3.1400354 -93.928452 8
80.604736 -3.1107616 -93.804443 8
81.779724 -3.1158044 -93.90506 8
82.676384 -3.1188118 -93.970398 8
79.259186 -2.9495058 -93.847672 8
81.329208 -2.8007929 -93.980377 9
81.479858 -2.8817151 -93.865166 8
82.255424 -2.8792849 -93.932404 8
80.53405 -2.7688446 -93.893593 9
81.457825 -2.7680898 -93.890205 8
79.236526 -2.5656457 -93.816093 9
132.528 -4.8209414 -93.680557 5
119.53487 -4.5786324 -93.619911 4
119.16879 -4.308527 -93.642212 5
119.52663 -4.3246183 -93.609009 5
75.545982 -4.0225072 -93.654037 5
76.444275 -4.0560689 -93.630173 5
76.710289 -4.0997467 -93.643867 5
77.834633 -4.1581602 -93.619507 5
79.148407 -4.0809431 -93.792679 5
79.232147 -4.0612326 -93.790588 5
82.003815 -4.0241652 -93.769775 6
118.48138 -4.1436281 -93.714043 6
119.17725 -4.0585184 -93.630531 6
119.50956 -4.022779 -93.602982 6
77.101685 -3.9759364 -93.680901 5
118.51 -3.9044838 -93.695259 7
118.61964 -3.9393301 -93.649734 7
119.16333 -3.8178339 -93.643532 7
119.27377 -3.8022206 -93.760658 7
77.129539 -3.6806269 -93.612526 6
77.697372 -3.7046764 -93.66198 6
78.236328 -3.6843777 -93.689003 6
79.207077 -3.6716275 -93.764107 6
118.53293 -3.6069627 -93.653221 8
119.16248 -3.6135232 -93.661705 8
164.43542 -3.7522502 -93.62204 8
118.57966 -3.5997369 -93.672783 8
119.2978 -3.4172139 -93.651207 8
77.0467 -3.2261987 -93.600952 7
77.858971 -3.2419357 -93.68335 7
78.798935 -3.270134 -93.753433 7
79.077667 -3.2730567 -93.766449 7
118.57658 -3.3250873 -93.638519 9
118.7108 -3.2059348 -93.63427 9
119.16507 -3.365248 -93.66349 9
119.27856 -3.056484 -93.606323 9
78.442513 -2.7993147 -93.667587 9
79.234016 -2.7410538 -93.799431 9
76.750839 -2.4352901 -93.744728 9
118.53008 -4.6321025 -93.489838 3
131.76942 -4.7718325 -93.437218 3
118.27398 -4.4253769 -93.465233 4.5
118.51096 -4.4321766 -93.585907 4.5
119.27663 -4.5212097 -93.426819 4
118.19939 -4.2485576 -93.478699 5
118.52794 -4.2579665 -93.588554 5
119.29587 -4.2944713 -93.509262 5
77.128754 -4.143755 -93.566071 5
118.25687 -4.0766644 -93.454712 6
118.48186 -4.0774107 -93.512184 6
119.52011 -4.1605425 -93.578255 6
73.880501 -3.9353509 -93.525818 5
74.199944 -3.9608212 -93.43232 5
74.229469 -3.9122844 -93.404724 5
74.531181 -3.872632 -93.567551 5.5
76.594254 -3.9410877 -93.517311 5
76.615852 -3.8271203 -93.518288 6
76.923981 -3.8170352 -93.543999 6
77.635353 -3.9763215 -93.592255 5
118.29263 -3.852176 -93.43779 7
118.48895 -3.8553555 -93.473175 7
119.30505 -3.8070459 -93.496605 7
119.47578 -3.814507 -93.533096 7
73.501152 -3.7682238 -93.448524 6
118.22916 -3.6066704 -93.440765 8
118.5388 -3.6158719 -93.567375 8
119.47713 -3.701669 -93.556656 7.5
76.402504 -3.5205555 -93.573097 7
118.4989 -3.5410478 -93.465919 8.333333
74.751465 -3.297585 -93.46199 7
118.55494 -3.3184016 -93.461296 9
119.4466 -3.3579767 -93.519432 9
118.47553 -3.1898823 -93.463631 9
77.058357 -2.8010173 -93.569084 8
76.638718 -2.795737 -93.471497 8
76.832352 -2.7665379 -93.533272 9
77.2724 -2.7923703 -93.523537 8
78.11496 -2.7871485 -93.590744 8
76.314423 -2.4440637 -93.583687 9
131.85034 -5.143651 -93.223434 1
118.3584 -4.6031051 -93.331818 3
131.87566 -4.5320077 -93.24411 4
72.761467 -4.0033393 -93.299721 6
73.241226 -4.0581431 -93.220596 5
73.588821 -4.0578861 -93.344742 5
132.32671 -4.1320095 -93.386093 7
73.740616 -3.93578 -93.285698 5.5
74.750946 -3.9368014 -93.365265 5
72.68634 -3.7921243 -93.372421 6
118.39017 -3.6027145 -93.385002 8
72.519997 -3.5580373 -93.24379 6.5
72.922935 -3.5184236 -93.251785 7
73.692673 -3.5316892 -93.311127 6.5
118.31219 -3.5131938 -93.390274 8.5
72.16848 -3.2313461 -93.212593 7
72.49707 -3.2489142 -93.253517 7
72.812668 -3.2539635 -93.268303 7
73.399536 -3.2671485 -93.33284 7
118.36327 -3.3100891 -93.389465 9
74.06221 -3.0676641 -93.251328 8
74.329231 -3.1301179 -93.395393 8
74.240005 -2.8082952 -93.301826 8
74.741623 -2.8076229 -93.360199 8
72.676849 -2.4418528 -93.29258 9
126.84547 -4.9794207 -93.159882 1
126.84049 -4.7584095 -93.037186 2
132.59691 -4.6536365 -93.153938 5
132.54288 -4.5376043 -93.026932 5
71.872032 -4.1241188 -93.09549 5
72.509399 -4.0057249 -93.171471 6
69.710052 -3.8562365 -93.109299 5
71.178406 -3.8374648 -93.015495 5
71.768265 -3.9469414 -93.158798 5
71.980904 -3.8716493 -93.099648 5
72.388596 -3.8555605 -93.046204 5
70.10627 -3.6348081 -93.082695 6
71.404434 -3.7660275 -93.080917 6
72.47303 -3.7274027 -93.165009 6
71.741714 -3.5698178 -93.18679 6
72.281067 -3.5621595 -93.091042 6
70.524643 -3.2845519 -93.058777 7
70.785835 -3.379554 -93.046494 7
71.443863 -3.2141302 -93.003128 7
71.87104 -3.2141871 -93.010895 7
72.341949 -3.2229571 -93.104919 7
70.097931 -3.0395658 -93.014633 8
70.502098 -3.040652 -93.071266 8
71.189346 -3.0343068 -93.027588 8
72.64994 -3.0650361 -93.138123 8
73.054626 -3.0664697 -93.180687 8
71.182297 -2.927213 -93.024277 8
71.5895 -2.9484334 -93.166443 7.5
71.875511 -2.8644965 -93.048027 8
72.332771 -2.8652728 -93.140106 8
72.813301 -2.8133488 -93.172935 8
70.797165 -2.6426351 -93.048553 9
71.26667 -2.6495557 -93.010147 9
70.536278 -2.5980198 -93.023651 9
71.54985 -2.4660401 -93.119843 9
71.868973 -2.5279567 -93.022125 9
72.337013 -2.5221393 -93.103485 9
131.90028 -5.4618654 -92.971436 0
126.83512 -5.3346076 -92.951805 0
131.86507 -5.0465269 -92.863968 1
115.39392 -4.916244 -92.83535 4
124.67213 -4.9189844 -92.888382 2
131.86533 -4.8453379 -92.815598 2
124.71334 -4.688838 -92.852463 3
131.86263 -4.6475205 -92.807983 3
124.68491 -4.4846749 -92.894188 4
109.57484 -4.2481322 -92.881996 4
115.326 -4.2367487 -92.910202 6
109.36745 -4.0721235 -92.883461 5
109.54475 -4.0680571 -92.884483 5
129.61093 -4.0788188 -92.823807 7
68.539932 -3.9313829 -92.812592 5.5
69.26059 -3.8988488 -92.894707 5.3333335
69.68158 -3.9279687 -92.915665 5
69.941795 -3.9076867 -92.86145 5
70.058105 -3.8127472 -92.877533 6
70.345238 -3.8183575 -92.976295 5.5
70.860321 -3.8579159 -92.972076 5
71.882339 -3.8208389 -92.862518 5
109.3774 -3.8469167 -92.844101 6
109.58314 -3.8607793 -92.965973 6
110.45612 -3.9738822 -92.979774 6
110.64824 -3.934377 -92.983124 6
115.19134 -3.874547 -92.842293 7
132.24261 -3.9498954 -92.941284 7
63.793644 -3.6143155 -92.852242 6
68.075089 -3.6908054 -92.868858 6
70.41201 -3.6113358 -92.96769 6
109.36952 -3.6350644 -92.831818 7
110.4282 -3.7122896 -92.975922 7
110.63216 -3.7138302 -92.945633 7
62.827465 -3.5868473 -92.814255 6
68.500046 -3.4270055 -92.854889 7
69.276123 -3.4086988 -92.897003 7
69.827972 -3.5777597 -92.918625 6
70.690819 -3.5837648 -92.805008 6
70.876137 -3.581461 -92.824135 6
71.30159 -3.5589347 -92.910248 6
71.912605 -3.5375566 -92.911041 6
109.39448 -3.4209335 -92.804138 8
109.59455 -3.5711274 -92.898766 7
110.51028 -3.445251 -92.953903 8
63.491074 -3.246804 -92.82888 7
63.823555 -3.2508905 -92.859383 7
70.105804 -3.3380008 -92.963478 7
71.242767 -3.3128445 -92.965721 7
109.59587 -3.2827115 -92.938164 8.5
110.39381 -3.2242415 -92.953773 9
110.56603 -3.2193265 -92.897255 9
70.889496 -3.0518665 -92.815704 8
63.489834 -2.8689566 -92.842285 8
63.819279 -2.8673816 -92.860794 8
69.054413 -2.9777327 -92.811432 8
69.523895 -2.9773726 -92.825638 8
70.712036 -2.9252496 -92.918312 8
69.219681 -2.6086845 -92.912468 9
70.033195 -2.6265438 -92.980125 9
63.488277 -2.5076869 -92.847687 9
63.841183 -2.5019441 -92.8312 9
68.744362 -2.5983849 -92.885239 9
70.776978 -2.5977836 -92.925346 9
71.198822 -2.5997849 -92.983353 9
63.565411 -2.3320739 -92.865799 9
131.87979 -5.4010544 -92.62146 0
131.86925 -5.3592997 -92.648407 2
124.674 -5.0600643 -92.611557 1
129.81819 -5.0687222 -92.766617 3
131.91772 -5.0804043 -92.762024 3
115.39524 -4.9233255 -92.748505 2
132.67249 -4.8420534 -92.717552 4
115.41985 -4.7366505 -92.774536 3
129.86681 -4.7493191 -92.658989 4
131.90593 -4.6509457 -92.621193 3
92.330757 -4.4273691 -92.635559 3
115.46371 -4.5067015 -92.726631 4.5
124.69408 -4.4354491 -92.61673 4
129.78442 -4.502059 -92.657715 6
132.61523 -4.5945973 -92.756729 5
67.66761 -4.0185313 -92.737106 5
92.342896 -4.1330462 -92.636162 4
129.68388 -4.1032338 -92.721283 7
61.739422 -3.894912 -92.630768 5
62.842079 -3.8696122 -92.688133 5
63.790752 -3.9204912 -92.775238 5
65.840828 -3.9552767 -92.615334 5
66.323822 -3.9081497 -92.678619 6
67.751411 -3.9303586 -92.764877 6
70.658028 -3.9175334 -92.724358 5
92.330605 -3.9261851 -92.621895 5
65.044365 -3.7715225 -92.689125 6
71.362915 -3.7370996 -92.786301 6
92.3284 -3.6677172 -92.61779 6
61.702976 -3.597331 -92.681305 6
63.939968 -3.5843713 -92.608841 6
66.412971 -3.47663 -92.667671 7
67.267906 -3.4553685 -92.735954 7
67.872284 -3.4402044 -92.784897 7
70.756027 -3.5502594 -92.77977 7
92.314766 -3.4187436 -92.623459 7
61.731995 -3.243856 -92.66526 7
62.857273 -3.2357512 -92.766983 7
67.536652 -3.3345027 -92.798698 7
70.863297 -3.2469909 -92.694199 7
92.340065 -3.205718 -92.629219 8
109.34023 -3.2491381 -92.781227 9
92.234795 -3.1187224 -92.664703 8
61.745617 -2.8779647 -92.697746 8
62.515633 -2.8760083 -92.744049 8
62.736801 -2.8769844 -92.787025 8
63.097122 -2.8690403 -92.788422 8
65.068794 -2.9503181 -92.602486 8
66.485947 -2.97263 -92.608826 8
67.395042 -2.974447 -92.682678 8
68.61087 -2.9767509 -92.773453 8
92.317871 -2.8818612 -92.628937 9
63.778725 -2.7028062 -92.726501 8
62.082413 -2.5280776 -92.707214 9
62.529072 -2.5289135 -92.714203 9
62.86924 -2.5304565 -92.761826 9
63.060905 -2.512742 -92.770546 9
127.45268 -5.3132739 -92.471771 1
129.84752 -5.2863574 -92.44413 4
124.17218 -5.147234 -92.543861 3
127.36915 -5.1268244 -92.556694 2
129.86205 -5.0455904 -92.524834 3.5
131.96783 -5.0520172 -92.508545 3
115.44009 -4.8648863 -92.432602 4
124.68719 -4.9358077 -92.495079 4
129.79761 -4.8004322 -92.437477 2
132.05952 -4.8547516 -92.41198 5
132.59352 -4.8616281 -92.567436 2
132.65939 -4.9889708 -92.412292 1
92.371658 -4.6087255 -92.57679 2
124.06244 -4.7968736 -92.49826 4
124.68996 -4.6388521 -92.493698 5
132.59795 -4.7011318 -92.523323 3
124.09213 -4.4490056 -92.49073 5
129.83144 -4.5264168 -92.496582 5
115.28566 -4.2001548 -92.459007 6
124.54956 -4.341321 -92.558792 6
129.61954 -4.280056 -92.410034 5
124.49431 -4.0308437 -92.436066 7
124.62663 -4.0864491 -92.403816 7
127.25452 -4.0673475 -92.436371 7
129.50047 -4.0527101 -92.454559 7
63.933311 -3.8843985 -92.528862 5
132.3858 -3.9897714 -92.573486 7
65.691017 -3.7247157 -92.568954 6
115.23276 -3.7866509 -92.561523 7
61.439774 -3.5443497 -92.45462 5
63.086433 -3.5381103 -92.463074 6
64.748993 -3.5365472 -92.532242 6
64.016136 -3.2221076 -92.554443 7
63.186813 -3.1992989 -92.409439 7
64.295242 -3.1295893 -92.529404 7
62.155865 -2.8216374 -92.544594 8
62.986343 -2.8594987 -92.496704 8
63.187038 -2.8552871 -92.437553 8
63.953083 -2.8501883 -92.575432 8
64.179337 -2.8454349 -92.523193 8
62.16095 -2.7489364 -92.401596 8
62.418194 -2.7479358 -92.401459 8
63.974632 -2.4930217 -92.550354 9
64.220161 -2.3086686 -92.505493 9
128.85992 -5.4152374 -92.236832 0
124.82191 -5.3555741 -92.375755 0
129.19368 -5.2350407 -92.297409 3
126.89315 -5.0738521 -92.216873 0
129.10915 -5.0710373 -92.244781 1
129.94106 -5.1498666 -92.255096 2
124.20214 -4.9729996 -92.289307 1
129.19092 -4.8949137 -92.298248 3
129.8541 -4.9284434 -92.302475 2
131.89629 -4.9272738 -92.398293 1
112.23448 -4.7084541 -92.316994 1
112.62563 -4.6769705 -92.349403 2
124.18436 -4.7810521 -92.333824 2
126.90578 -4.663702 -92.260605 1.5
129.11543 -4.6524763 -92.26358 3
129.9501 -4.7476001 -92.347313 5
132.5844 -4.7733884 -92.224716 4
132.64183 -4.6369643 -92.241432 5
112.2201 -4.5138168 -92.289391 2
127.37708 -4.4325385 -92.237137 5
129.2072 -4.4632173 -92.343491 4
129.69926 -4.4938898 -92.289932 3.5
127.26365 -4.2268705 -92.295341 6
129.25757 -4.2947655 -92.388138 5
132.51776 -4.3417583 -92.222656 4.5
127.32009 -4.1242771 -92.277618 7
129.59486 -4.1268978 -92.229263 7
133.07373 -4.1150022 -92.250542 6
61.633934 -3.852453 -92.321838 5
63.191723 -3.8120446 -92.369698 5
61.624966 -3.2187395 -92.36232 7
61.159554 -3.0677431 -92.250961 7
61.790806 -3.0787737 -92.300781 7
61.069328 -2.8529844 -92.235031 8
61.526226 -2.8579948 -92.307991 8
61.777058 -2.8528214 -92.332382 8
62.513687 -2.8496814 -92.38102 8
64.147133 -2.684881 -92.394081 8
61.10022 -2.5213172 -92.219345 9
61.751472 -2.5189519 -92.343048 9
62.523769 -2.510469 -92.352966 9
61.843712 -2.3576519 -92.320473 9
62.414127 -2.3469384 -92.370926 9
124.21884 -5.337101 -92.189034 0
127.38065 -5.2375278 -92.087685 1
112.32469 -5.0592213 -92.104935 0
127.39851 -5.0088773 -92.021088 2
127.4031 -5.0425177 -92.185753 2
129.21536 -5.0601635 -92.103378 1
129.94324 -5.078383 -92.171349 4
115.4033 -4.8635406 -92.156143 2
127.59502 -4.8839602 -92.045364 5
129.25504 -4.8879862 -92.10099 4
131.97659 -4.8466682 -92.037613 1
132.14354 -4.8359904 -92.118713 5
132.56555 -4.8026133 -92.155411 2
132.64285 -4.8965454 -92.06707 1
115.43532 -4.6946959 -92.15799 3.5
124.81629 -4.6326523 -92.014565 2.5
127.28386 -4.6842718 -92.072189 5
129.22864 -4.7939072 -92.067245 2
129.63531 -4.6225185 -92.007729 2.5
129.90999 -4.7229404 -92.109772 5
132.0795 -4.7245226 -92.053726 3
132.49976 -4.6730452 -92.062897 3
133.29996 -4.6390157 -92.011482 1.5
115.52054 -4.4602485 -92.159798 5
124.16023 -4.5217795 -92.088524 3
126.94682 -4.4832802 -92.104446 2.5
127.34677 -4.4049416 -92.034836 5
127.44985 -4.5302062 -92.065178 3
129.75433 -4.4441724 -92.09893 6
131.95601 -4.4410806 -92.020851 4
132.25374 -4.4457874 -92.092117 5.5
132.51343 -4.4757042 -92.093719 4.5
133.10197 -4.5956211 -92.013435 2
133.2206 -4.4027147 -92.080971 3.5
112.69901 -4.3913774 -92.006241 3
115.44881 -4.3942423 -92.139969 4
127.27602 -4.3541689 -92.011597 5.5
127.45506 -4.3631678 -92.054337 3
129.40469 -4.2620296 -92.041092 4.25
131.34238 -4.2942047 -92.03064 4.25
132.13672 -4.2713957 -92.111794 4.5
132.27858 -4.3072901 -92.070198 5
132.44971 -4.2834983 -92.098572 5
133.01511 -4.369585 -92.159431 4
112.24686 -4.1927891 -92.087936 5
127.19894 -4.199532 -92.045815 6
127.25702 -4.0881648 -92.125656 5
132.28702 -4.1893768 -92.18013 6
133.05566 -4.1255636 -92.179153 5
98.450134 -3.8738577 -92.034241 5
124.35753 -3.9206889 -92.106583 6
98.773567 -3.6853194 -92.016121 6
59.147484 -3.5137968 -92.061035 5
59.421829 -3.4043474 -92.056488 6
59.621689 -3.5526991 -92.115883 6
60.043686 -3.4880099 -92.14917 6
24.159954 -3.2212377 -92.071335 6
61.072292 -3.3209629 -92.181763 6
97.824722 -3.3367107 -92.006195 8
58.644981 -3.1893988 -92.033707 7
59.7481 -3.0215211 -92.111694 7
59.899437 -3.1211257 -92.197983 7
60.216988 -3.0318327 -92.159592 7
97.816772 -3.0973861 -92.043549 9
57.795879 -2.8661373 -92.004166 8
24.298456 -2.7261586 -92.031693 7
59.85004 -2.7436671 -92.153923 8
60.12072 -2.5838645 -92.036629 8
124.67661 -5.1106539 -91.895172 3
124.84555 -5.1993351 -91.851006 0
127.14478 -5.0315418 -91.912079 2
129.73972 -5.0747199 -91.877167 2.6666667
131.36642 -5.064095 -91.817245 1
132.08701 -5.0160971 -91.90876 4
132.4581 -5.0499554 -91.986046 3
124.89317 -4.8501358 -91.904892 3
126.2561 -4.9002781 -91.805206 0
126.95903 -4.9827957 -91.932358 0
127.13246 -4.8016567 -91.870476 3
127.32174 -4.9755187 -91.909431 4
127.48908 -4.8334937 -91.921173 0
129.35712 -4.8501472 -91.844788 3
129.47711 -4.8427896 -91.807526 2
129.88571 -4.8649178 -91.969009 5
130.22868 -4.8784409 -91.829834 0
130.45905 -4.9013529 -91.810875 0
131.20177 -4.9036961 -91.870628 0
131.52837 -4.8643141 -91.901634 2
131.87064 -4.9830518 -91.885796 1
132.09274 -4.9189491 -91.938309 2
132.65187 -4.9454622 -91.931335 1
132.80052 -4.9319773 -91.904625 0
133.00676 -4.949358 -91.936104 0
112.23213 -4.6893821 -91.947037 3
124.26564 -4.6796894 -91.818024 2
126.25062 -4.6673059 -91.830566 1
126.66467 -4.6188068 -91.839722 1
126.87134 -4.6512556 -91.848022 3
127.03908 -4.6033902 -91.896606 1.5
127.33714 -4.653779 -91.866982 0.91666669
127.51519 -4.7310266 -91.811333 1
127.8557 -4.6918998 -91.873589 1.5
129.29973 -4.7083302 -91.853996 1.6666666
129.51674 -4.7417927 -91.878609 3.5
129.97125 -4.7113719 -91.863441 3
130.50238 -4.6440177 -91.925858 1
131.33363 -4.6913691 -91.876396 3
131.72186 -4.6522322 -91.856552 2
131.81697 -4.6831427 -91.982147 3
132.03107 -4.6544809 -91.953979 4
132.21141 -4.757483 -91.955437 4
132.68315 -4.7779093 -91.973442 2
132.97478 -4.6865454 -91.990288 1
89.722122 -4.5056667 -91.882088 2
112.25639 -4.4444761 -91.940254 4
114.75089 -4.4033003 -91.883934 3
124.21063 -4.4490147 -91.815758 5
124.73077 -4.5593929 -91.883362 5
126.28493 -4.511888 -91.840134 2
127.1045 -4.5286489 -91.892517 3.3333333
127.36852 -4.5542612 -91.911484 5
127.55695 -4.5984526 -91.927795 2
127.85799 -4.4543133 -91.887474 3
129.30783 -4.5039639 -91.888748 3
129.44431 -4.5119004 -91.896088 5
129.677 -4.4612274 -91.959 5.5
129.95908 -4.4887781 -91.878799 4
130.52255 -4.5183873 -91.984116 2
131.20282 -4.5013585 -91.91436 2.5
131.67339 -4.4617538 -91.953224 4
132.16684 -4.5465732 -91.948723 3
132.42009 -4.5803237 -91.940117 3
89.727936 -4.3170257 -91.894707 3
97.800995 -4.227067 -91.855164 4
98.512238 -4.2801981 -91.845985 3
98.754272 -4.3019991 -91.895851 3
124.76365 -4.2086258 -91.90406 7
126.32338 -4.3304386 -91.86644 3
126.42158 -4.366344 -91.934883 3
126.71515 -4.3161192 -91.940811 3
127.11133 -4.36833 -91.88279 3
127.31828 -4.3201938 -91.99054 3
131.29158 -4.3821454 -91.966125 3.75
97.486778 -4.0190001 -91.890686 5
97.836143 -4.0076408 -91.969025 5
98.466629 -4.0700793 -91.896927 4
98.770721 -4.08881 -91.937088 4
112.70432 -4.1657367 -91.868996 4
124.63338 -4.0444455 -91.878204 7
98.753754 -3.8611591 -91.91024 5
112.42039 -3.89818 -91.960205 6
56.496254 -3.7244172 -91.839996 5
57.150913 -3.7645996 -91.951248 5
57.228081 -3.7051156 -91.887711 5
97.541428 -3.7233238 -91.85247 6
97.834351 -3.7657633 -91.958786 6
98.508041 -3.6695843 -91.937553 6
57.315498 -3.4825807 -91.881836 6
97.82914 -3.5735831 -91.997833 7
98.505081 -3.4490142 -91.912415 7
98.764725 -3.4576638 -91.969803 7
56.395985 -3.3501577 -91.830544 6
98.430832 -3.235836 -91.990974 8
98.674286 -3.2290664 -91.883705 8
98.408745 -3.0107079 -91.954582 9
98.756432 -3.0083239 -91.95491 9
56.901604 -2.975225 -91.868774 7
57.086018 -2.499639 -91.877754 9
57.843834 -2.4695675 -91.969971 9
59.372612 -2.5876117 -91.972794 8
24.179476 -2.2546518 -91.941986 8
129.53453 -5.4334106 -91.665443 0
124.07832 -5.0091238 -91.627953 3
124.74016 -5.1651416 -91.752045 4.5
129.40506 -5.0364075 -91.787933 4
129.90332 -5.0214643 -91.792267 1
115.51114 -4.9647808 -91.673332 1
124.21987 -4.838913 -91.733818 1
124.73283 -4.8433557 -91.70816 5
128.83958 -4.9765086 -91.666069 3
129.31981 -4.8356314 -91.729881 1
129.48215 -4.9619451 -91.791031 2
129.86609 -4.9096413 -91.785385 2
131.72278 -4.9888968 -91.795135 1
114.79023 -4.7191606 -91.67524 1
126.40454 -4.7691092 -91.750229 0
126.6007 -4.7345395 -91.729858 0
129.18948 -4.7073741 -91.793968 4
114.81779 -4.5915751 -91.726196 2
115.50159 -4.5241694 -91.62162 3
124.23122 -4.4729872 -91.7799 3
124.87089 -4.4962335 -91.729637 3
128.72037 -4.4542041 -91.791908 5
97.557327 -4.2381983 -91.799919 4
115.50504 -4.3410616 -91.697746 5
52.601791 -3.7304187 -91.669022 5
53.000191 -3.6527395 -91.739639 5
53.711761 -3.6627846 -91.796745 5
112.52338 -3.6663814 -91.637375 6.5
51.877884 -3.4490743 -91.653023 6
53.384537 -3.4055822 -91.659927 6
97.681679 -3.5579484 -91.785637 7
53.813465 -3.3995848 -91.694176 6
54.536991 -3.3649175 -91.652664 6
54.686218 -3.2957809 -91.669495 6.5
54.955715 -3.3709357 -91.772858 6
55.165398 -3.323597 -91.677277 6
55.885033 -3.2720399 -91.743416 6
57.144669 -3.3544812 -91.751617 6
97.583549 -3.3236065 -91.758644 8
53.433212 -3.0640025 -91.619064 7
53.671463 -3.0662849 -91.684883 7
54.980141 -3.0226471 -91.758644 7
55.142212 -3.0101438 -91.607796 7
97.583199 -3.085628 -91.765373 9
98.584846 -3.0496905 -91.781113 9
53.63736 -2.8146183 -91.604706 7
55.143963 -2.6505206 -91.624702 8
53.629345 -2.4778774 -91.642311 8
54.204334 -2.379972 -91.675919 9
54.56517 -2.3166707 -91.699921 9
54.998558 -2.3111396 -91.727859 9
55.354988 -2.306149 -91.776619 9
124.89619 -5.2956991 -91.415649 2
114.72751 -5.1249056 -91.561111 0
124.83839 -5.0235815 -91.454147 3
124.74745 -4.8162308 -91.451126 5
115.46515 -4.7101202 -91.403107 2
124.30976 -4.7209668 -91.496193 2.3333333
124.85688 -4.7239285 -91.53997 2.3333333
112.36549 -4.5190353 -91.519379 1
112.76741 -4.471724 -91.558594 2
124.75563 -4.4528074 -91.444237 5
124.84868 -4.4588647 -91.505257 3
112.30786 -4.3691511 -91.537643 3
115.5723 -4.3869772 -91.404747 5
124.55272 -4.2218542 -91.425926 6
124.67053 -4.2451682 -91.567848 5
112.35668 -4.1804132 -91.515564 3
112.71091 -4.0968065 -91.497269 4
115.37069 -4.0007005 -91.475929 6
124.65839 -4.101387 -91.503632 5.75
124.88776 -4.1639175 -91.424736 7
115.26382 -3.8594179 -91.451401 7
51.841751 -3.7060652 -91.439003 5.5
53.435825 -3.6885486 -91.59465 5
53.680775 -3.6776001 -91.57428 5
54.081707 -3.7136991 -91.483917 5
54.677441 -3.6304638 -91.515167 5
55.082382 -3.6438417 -91.557297 5
47.254993 -3.5213668 -91.467636 5
50.776585 -3.4638984 -91.418755 6
51.721584 -3.2775805 -91.456985 6
53.643284 -3.3846657 -91.538666 6
54.039829 -3.3773565 -91.543472 6
54.086197 -3.1081021 -91.500221 7
54.70573 -3.0050075 -91.566109 7
51.81945 -2.8168445 -91.456169 7
52.033867 -2.8676705 -91.525864 7
54.074173 -2.8471065 -91.550919 8
46.691776 -2.7589366 -91.406128 7
53.632454 -2.7058442 -91.516937 8
54.052696 -2.7050083 -91.533226 8
54.62785 -2.6051705 -91.548439 8
51.374535 -2.4229913 -91.428635 9
51.611038 -2.4861097 -91.481049 8
54.065495 -2.4649243 -91.503548 9
52.449772 -2.3692048 -91.405922 8
53.649086 -2.3746982 -91.482208 9
54.051296 -2.3771064 -91.502014 9
54.735878 -2.3128514 -91.584351 9
50.689938 -2.0160899 -91.545807 9
51.882587 -2.1217225 -91.45871 9
53.58548 -2.0842018 -91.572159 9
51.382923 -1.9990658 -91.458168 9
124.25078 -5.1419892 -91.301636 0
124.78633 -5.0100508 -91.292831 3
124.96324 -5.1350718 -91.344032 4.5
102.68571 -4.9680953 -91.368858 0
112.82642 -4.8589096 -91.212318 0
114.77881 -4.9421024 -91.339066 3
115.54008 -4.8757105 -91.272774 1
124.1389 -4.9810719 -91.335335 3
114.8075 -4.6227665 -91.378181 4
115.57021 -4.7377872 -91.391891 4
124.31752 -4.7417974 -91.271866 2.5
124.95663 -4.6936278 -91.238647 1
103.1702 -4.529912 -91.314125 4
107.96258 -4.5241342 -91.263512 1
112.83177 -4.5836353 -91.364258 1
124.69677 -4.4013472 -91.224236 6
124.87158 -4.59512 -91.296806 2
100.03384 -4.2435589 -91.232315 3
103.14536 -4.3037133 -91.290344 3
103.22044 -4.2149839 -91.262352 5
107.98135 -4.3856626 -91.216583 2
114.79558 -4.2684679 -91.383011 5
115.43284 -4.2568994 -91.217018 4
124.51286 -4.236609 -91.340515 4
100.0812 -4.0445037 -91.315346 4
103.12251 -4.1133437 -91.34063 4
115.37889 -4.0983391 -91.299751 5
112.58755 -3.8375731 -91.210373 5
50.566746 -3.7443397 -91.337135 6
50.970749 -3.7244799 -91.379196 6
112.59241 -3.6658888 -91.260628 6
49.621964 -3.4478455 -91.287483 6
50.323177 -3.4206119 -91.316879 6
48.317177 -3.3592362 -91.312881 6
49.254757 -3.2324924 -91.202766 5
51.251244 -3.3186207 -91.391068 6
46.301281 -3.1599984 -91.220795 6
47.200047 -3.1867146 -91.342552 6
48.414104 -3.1833217 -91.276009 6
46.272713 -2.8074441 -91.245621 7
47.197113 -2.8682234 -91.230293 7
47.227974 -2.8240256 -91.334023 7
48.34314 -2.8256147 -91.206764 7
48.875019 -2.8851287 -91.210182 7
49.397888 -2.8934665 -91.237747 7
49.629738 -2.9816949 -91.316971 7
46.028301 -2.6642966 -91.203697 8
50.543285 -2.7901816 -91.329681 7
50.804543 -2.7999625 -91.265335 8
51.399796 -2.7983685 -91.302841 8
52.140949 -2.7976654 -91.3592 8
45.837097 -2.4578831 -91.217743 8
46.296589 -2.443079 -91.209 8
46.545341 -2.444078 -91.264511 8
46.752373 -2.4433172 -91.267822 8
48.509403 -2.4354603 -91.228531 8
50.576042 -2.4353962 -91.399429 8
50.906658 -2.3732064 -91.269623 8
51.582901 -2.3719125 -91.333717 8
46.75943 -2.0612271 -91.225151 9
47.319721 -2.0796669 -91.268135 9
50.825558 -2.0113497 -91.352287 9
115.62243 -5.2074451 -91.094177 0
124.58326 -5.0985756 -91.028748 0
124.77092 -5.0962343 -91.117973 2
124.86731 -5.0540514 -91.128525 0
112.37082 -4.8391404 -91.133438 2
115.50546 -4.8452239 -91.088364 1
124.40446 -4.9838686 -91.010582 3
124.74326 -4.9836025 -91.040482 3
100.10197 -4.6524787 -91.085068 1
107.6443 -4.7803879 -91.057335 2
112.35024 -4.6388788 -91.167709 3
112.4622 -4.650527 -91.010231 0
114.88554 -4.602356 -91.13842 4
115.49757 -4.7504559 -91.017998 4.5
124.31945 -4.6623955 -91.020889 1.5
124.48369 -4.725132 -91.072792 4
124.70312 -4.7124615 -91.12912 3
124.87724 -4.6838303 -91.11055 3
103.15408 -4.4378791 -91.025131 2
107.59549 -4.4936242 -91.012108 3
112.54272 -4.5902123 -91.100342 3
115.53304 -4.4223328 -91.008163 3
123.51785 -4.4893317 -91.023994 0
124.15941 -4.4615746 -91.001686 5
124.22231 -4.4735775 -91.044922 3
124.46317 -4.4998827 -91.138382 2.5
124.63988 -4.4358735 -91.194687 3
124.92043 -4.4484882 -91.073746 3
112.45331 -4.3815541 -91.05719 1
112.74465 -4.3059816 -91.034637 2.5
123.51513 -4.3300557 -91.079491 1
124.64217 -4.3663688 -91.151367 5
103.20705 -4.197823 -91.076241 5
107.68736 -4.1925793 -91.098038 4
107.98993 -4.1021361 -91.171982 3
112.47067 -4.1760602 -91.141853 2.5
112.6867 -4.0342054 -91.132538 4
115.3031 -4.0955505 -91.163635 6
123.49852 -4.15592 -91.177155 2
89.773666 -3.9302535 -91.021683 5
103.11408 -3.8925045 -91.138123 6
112.57632 -3.9068675 -91.174789 4
112.65108 -3.8431013 -91.087959 5.666667
93.427399 -3.7964339 -91.060005 5
112.70985 -3.6916885 -91.058037 6
46.700802 -3.46965 -91.197723 5
47.920773 -3.5168271 -91.123657 5
49.008602 -3.4585481 -91.198097 5
47.859848 -3.3569441 -91.160515 6
45.218571 -3.1383972 -91.106262 6
45.849171 -3.1337514 -91.027725 6
46.478806 -3.1121035 -91.103134 6
46.85714 -3.0672443 -91.103752 6.5
47.379154 -3.1671808 -91.133766 6
47.970314 -3.0667319 -91.123589 6.5
45.199066 -2.8133569 -91.100739 7
45.462116 -2.9773896 -91.075073 6
45.732742 -2.8112571 -91.197021 7
45.910637 -2.9877768 -91.127258 7
47.431438 -2.8084826 -91.1008 7
47.622452 -2.8596058 -91.054443 7
48.260399 -2.8334293 -91.019669 7
24.247406 -2.7124968 -91.11908 7
45.077629 -2.6638973 -91.044952 8
45.887074 -2.7980776 -91.07415 7
46.369793 -2.7346964 -91.067093 7
46.487671 -2.7872815 -91.004448 7
47.603825 -2.6516087 -91.003891 8
47.82267 -2.7152135 -91.175636 8
48.141529 -2.7144125 -91.183319 8
48.547218 -2.6452286 -91.195709 8
45.194786 -2.4604242 -91.137001 8
45.348515 -2.5358994 -91.10582 8
45.619572 -2.458509 -91.183586 8
46.210068 -2.449806 -91.074364 8
46.502205 -2.438344 -91.053085 8
47.18943 -2.4262593 -91.15789 8
47.378819 -2.4360452 -91.14386 8
48.891888 -2.4044652 -91.108414 8
45.449844 -2.2769248 -91.105682 9
46.017048 -2.2860377 -91.185211 9
46.988571 -2.3897316 -91.118713 8
47.495113 -2.2824664 -91.084213 9
48.184124 -2.2978141 -91.163773 9
45.179321 -2.1219456 -91.096741 9
45.580379 -2.1214192 -91.03331 9
46.277161 -2.1062326 -91.181618 9
47.299198 -2.043323 -91.128716 9
48.453072 -2.0604718 -91.148972 9
115.44283 -5.0425749 -90.988052 3
124.34803 -5.0288715 -90.907249 3
114.94048 -4.9134851 -90.94767 3
124.18396 -4.8020229 -90.966858 4
113.40843 -4.6933002 -90.80867 0
